VERSION .7
FIELDS x y z
SIZE 4 4 4
TYPE I I I
WIDTH 484
HEIGHT 1
VIEWPOINT 0 0 0 1 0 0 0
POINTS 484
DATA ASCII
-10.00 5.00 0.70
-9.05 5.00 0.83
-8.10 5.00 0.98
-7.14 5.00 1.13
-6.19 5.00 1.29
-5.24 5.00 1.44
-4.29 5.00 1.57
-3.33 5.00 1.69
-2.38 5.00 1.79
-1.43 5.00 1.85
-0.48 5.00 1.89
0.48 5.00 1.89
1.43 5.00 1.85
2.38 5.00 1.79
3.33 5.00 1.69
4.29 5.00 1.57
5.24 5.00 1.44
6.19 5.00 1.29
7.14 5.00 1.13
8.10 5.00 0.98
9.05 5.00 0.83
10.00 5.00 0.70
-10.00 4.99 0.80
-9.05 4.99 0.95
-8.10 4.99 1.12
-7.14 4.99 1.30
-6.19 4.99 1.48
-5.24 4.99 1.65
-4.29 4.99 1.80
-3.33 4.99 1.94
-2.38 4.99 2.05
-1.43 4.99 2.12
-0.48 4.99 2.16
0.48 4.99 2.16
1.43 4.99 2.12
2.38 4.99 2.05
3.33 4.99 1.94
4.29 4.99 1.80
5.24 4.99 1.65
6.19 4.99 1.48
7.14 4.99 1.30
8.10 4.99 1.12
9.05 4.99 0.95
10.00 4.99 0.80
-10.00 4.95 0.90
-9.05 4.95 1.08
-8.10 4.95 1.27
-7.14 4.95 1.47
-6.19 4.95 1.67
-5.24 4.95 1.86
-4.29 4.95 2.04
-3.33 4.95 2.19
-2.38 4.95 2.31
-1.43 4.95 2.40
-0.48 4.95 2.44
0.48 4.95 2.44
1.43 4.95 2.40
2.38 4.95 2.31
3.33 4.95 2.19
4.29 4.95 2.04
5.24 4.95 1.86
6.19 4.95 1.67
7.14 4.95 1.47
8.10 4.95 1.27
9.05 4.95 1.08
10.00 4.95 0.90
-10.00 4.90 1.00
-9.05 4.90 1.20
-8.10 4.90 1.42
-7.14 4.90 1.64
-6.19 4.90 1.86
-5.24 4.90 2.07
-4.29 4.90 2.27
-3.33 4.90 2.44
-2.38 4.90 2.58
-1.43 4.90 2.67
-0.48 4.90 2.72
0.48 4.90 2.72
1.43 4.90 2.67
2.38 4.90 2.58
3.33 4.90 2.44
4.29 4.90 2.27
5.24 4.90 2.07
6.19 4.90 1.86
7.14 4.90 1.64
8.10 4.90 1.42
9.05 4.90 1.20
10.00 4.90 1.00
-10.00 4.82 1.10
-9.05 4.82 1.32
-8.10 4.82 1.56
-7.14 4.82 1.80
-6.19 4.82 2.05
-5.24 4.82 2.28
-4.29 4.82 2.50
-3.33 4.82 2.69
-2.38 4.82 2.84
-1.43 4.82 2.94
-0.48 4.82 2.99
0.48 4.82 2.99
1.43 4.82 2.94
2.38 4.82 2.84
3.33 4.82 2.69
4.29 4.82 2.50
5.24 4.82 2.28
6.19 4.82 2.05
7.14 4.82 1.80
8.10 4.82 1.56
9.05 4.82 1.32
10.00 4.82 1.10
-10.00 4.72 1.20
-9.05 4.72 1.44
-8.10 4.72 1.69
-7.14 4.72 1.95
-6.19 4.72 2.22
-5.24 4.72 2.47
-4.29 4.72 2.71
-3.33 4.72 2.91
-2.38 4.72 3.08
-1.43 4.72 3.19
-0.48 4.72 3.25
0.48 4.72 3.25
1.43 4.72 3.19
2.38 4.72 3.08
3.33 4.72 2.91
4.29 4.72 2.71
5.24 4.72 2.47
6.19 4.72 2.22
7.14 4.72 1.95
8.10 4.72 1.69
9.05 4.72 1.44
10.00 4.72 1.20
-10.00 4.59 1.28
-9.05 4.59 1.54
-8.10 4.59 1.81
-7.14 4.59 2.09
-6.19 4.59 2.38
-5.24 4.59 2.65
-4.29 4.59 2.90
-3.33 4.59 3.12
-2.38 4.59 3.29
-1.43 4.59 3.41
-0.48 4.59 3.48
0.48 4.59 3.48
1.43 4.59 3.41
2.38 4.59 3.29
3.33 4.59 3.12
4.29 4.59 2.90
5.24 4.59 2.65
6.19 4.59 2.38
7.14 4.59 2.09
8.10 4.59 1.81
9.05 4.59 1.54
10.00 4.59 1.28
-10.00 4.44 1.35
-9.05 4.44 1.62
-8.10 4.44 1.91
-7.14 4.44 2.21
-6.19 4.44 2.51
-5.24 4.44 2.80
-4.29 4.44 3.06
-3.33 4.44 3.29
-2.38 4.44 3.48
-1.43 4.44 3.61
-0.48 4.44 3.67
0.48 4.44 3.67
1.43 4.44 3.61
2.38 4.44 3.48
3.33 4.44 3.29
4.29 4.44 3.06
5.24 4.44 2.80
6.19 4.44 2.51
7.14 4.44 2.21
8.10 4.44 1.91
9.05 4.44 1.62
10.00 4.44 1.35
-10.00 4.27 1.41
-9.05 4.27 1.69
-8.10 4.27 1.99
-7.14 4.27 2.30
-6.19 4.27 2.61
-5.24 4.27 2.91
-4.29 4.27 3.19
-3.33 4.27 3.43
-2.38 4.27 3.62
-1.43 4.27 3.76
-0.48 4.27 3.82
0.48 4.27 3.82
1.43 4.27 3.76
2.38 4.27 3.62
3.33 4.27 3.43
4.29 4.27 3.19
5.24 4.27 2.91
6.19 4.27 2.61
7.14 4.27 2.30
8.10 4.27 1.99
9.05 4.27 1.69
10.00 4.27 1.41
-10.00 4.08 1.45
-9.05 4.08 1.74
-8.10 4.08 2.05
-7.14 4.08 2.37
-6.19 4.08 2.69
-5.24 4.08 2.99
-4.29 4.08 3.28
-3.33 4.08 3.52
-2.38 4.08 3.72
-1.43 4.08 3.86
-0.48 4.08 3.93
0.48 4.08 3.93
1.43 4.08 3.86
2.38 4.08 3.72
3.33 4.08 3.52
4.29 4.08 3.28
5.24 4.08 2.99
6.19 4.08 2.69
7.14 4.08 2.37
8.10 4.08 2.05
9.05 4.08 1.74
10.00 4.08 1.45
-10.00 3.87 1.47
-9.05 3.87 1.76
-8.10 3.87 2.07
-7.14 3.87 2.40
-6.19 3.87 2.72
-5.24 3.87 3.04
-4.29 3.87 3.32
-3.33 3.87 3.57
-2.38 3.87 3.77
-1.43 3.87 3.91
-0.48 3.87 3.98
0.48 3.87 3.98
1.43 3.87 3.91
2.38 3.87 3.77
3.33 3.87 3.57
4.29 3.87 3.32
5.24 3.87 3.04
6.19 3.87 2.72
7.14 3.87 2.40
8.10 3.87 2.07
9.05 3.87 1.76
10.00 3.87 1.47
-10.00 3.63 1.47
-9.05 3.63 1.76
-8.10 3.63 2.07
-7.14 3.63 2.40
-6.19 3.63 2.72
-5.24 3.63 3.04
-4.29 3.63 3.32
-3.33 3.63 3.57
-2.38 3.63 3.77
-1.43 3.63 3.91
-0.48 3.63 3.98
0.48 3.63 3.98
1.43 3.63 3.91
2.38 3.63 3.77
3.33 3.63 3.57
4.29 3.63 3.32
5.24 3.63 3.04
6.19 3.63 2.72
7.14 3.63 2.40
8.10 3.63 2.07
9.05 3.63 1.76
10.00 3.63 1.47
-10.00 3.37 1.45
-9.05 3.37 1.74
-8.10 3.37 2.05
-7.14 3.37 2.37
-6.19 3.37 2.69
-5.24 3.37 2.99
-4.29 3.37 3.28
-3.33 3.37 3.52
-2.38 3.37 3.72
-1.43 3.37 3.86
-0.48 3.37 3.93
0.48 3.37 3.93
1.43 3.37 3.86
2.38 3.37 3.72
3.33 3.37 3.52
4.29 3.37 3.28
5.24 3.37 2.99
6.19 3.37 2.69
7.14 3.37 2.37
8.10 3.37 2.05
9.05 3.37 1.74
10.00 3.37 1.45
-10.00 3.08 1.41
-9.05 3.08 1.69
-8.10 3.08 1.99
-7.14 3.08 2.30
-6.19 3.08 2.61
-5.24 3.08 2.91
-4.29 3.08 3.19
-3.33 3.08 3.43
-2.38 3.08 3.62
-1.43 3.08 3.76
-0.48 3.08 3.82
0.48 3.08 3.82
1.43 3.08 3.76
2.38 3.08 3.62
3.33 3.08 3.43
4.29 3.08 3.19
5.24 3.08 2.91
6.19 3.08 2.61
7.14 3.08 2.30
8.10 3.08 1.99
9.05 3.08 1.69
10.00 3.08 1.41
-10.00 2.78 1.35
-9.05 2.78 1.62
-8.10 2.78 1.91
-7.14 2.78 2.21
-6.19 2.78 2.51
-5.24 2.78 2.80
-4.29 2.78 3.06
-3.33 2.78 3.29
-2.38 2.78 3.48
-1.43 2.78 3.61
-0.48 2.78 3.67
0.48 2.78 3.67
1.43 2.78 3.61
2.38 2.78 3.48
3.33 2.78 3.29
4.29 2.78 3.06
5.24 2.78 2.80
6.19 2.78 2.51
7.14 2.78 2.21
8.10 2.78 1.91
9.05 2.78 1.62
10.00 2.78 1.35
-10.00 2.45 1.28
-9.05 2.45 1.54
-8.10 2.45 1.81
-7.14 2.45 2.09
-6.19 2.45 2.38
-5.24 2.45 2.65
-4.29 2.45 2.90
-3.33 2.45 3.12
-2.38 2.45 3.29
-1.43 2.45 3.41
-0.48 2.45 3.48
0.48 2.45 3.48
1.43 2.45 3.41
2.38 2.45 3.29
3.33 2.45 3.12
4.29 2.45 2.90
5.24 2.45 2.65
6.19 2.45 2.38
7.14 2.45 2.09
8.10 2.45 1.81
9.05 2.45 1.54
10.00 2.45 1.28
-10.00 2.10 1.20
-9.05 2.10 1.44
-8.10 2.10 1.69
-7.14 2.10 1.95
-6.19 2.10 2.22
-5.24 2.10 2.47
-4.29 2.10 2.71
-3.33 2.10 2.91
-2.38 2.10 3.08
-1.43 2.10 3.19
-0.48 2.10 3.25
0.48 2.10 3.25
1.43 2.10 3.19
2.38 2.10 3.08
3.33 2.10 2.91
4.29 2.10 2.71
5.24 2.10 2.47
6.19 2.10 2.22
7.14 2.10 1.95
8.10 2.10 1.69
9.05 2.10 1.44
10.00 2.10 1.20
-10.00 1.72 1.10
-9.05 1.72 1.32
-8.10 1.72 1.56
-7.14 1.72 1.80
-6.19 1.72 2.05
-5.24 1.72 2.28
-4.29 1.72 2.50
-3.33 1.72 2.69
-2.38 1.72 2.84
-1.43 1.72 2.94
-0.48 1.72 2.99
0.48 1.72 2.99
1.43 1.72 2.94
2.38 1.72 2.84
3.33 1.72 2.69
4.29 1.72 2.50
5.24 1.72 2.28
6.19 1.72 2.05
7.14 1.72 1.80
8.10 1.72 1.56
9.05 1.72 1.32
10.00 1.72 1.10
-10.00 1.33 1.00
-9.05 1.33 1.20
-8.10 1.33 1.42
-7.14 1.33 1.64
-6.19 1.33 1.86
-5.24 1.33 2.07
-4.29 1.33 2.27
-3.33 1.33 2.44
-2.38 1.33 2.58
-1.43 1.33 2.67
-0.48 1.33 2.72
0.48 1.33 2.72
1.43 1.33 2.67
2.38 1.33 2.58
3.33 1.33 2.44
4.29 1.33 2.27
5.24 1.33 2.07
6.19 1.33 1.86
7.14 1.33 1.64
8.10 1.33 1.42
9.05 1.33 1.20
10.00 1.33 1.00
-10.00 0.91 0.90
-9.05 0.91 1.08
-8.10 0.91 1.27
-7.14 0.91 1.47
-6.19 0.91 1.67
-5.24 0.91 1.86
-4.29 0.91 2.04
-3.33 0.91 2.19
-2.38 0.91 2.31
-1.43 0.91 2.40
-0.48 0.91 2.44
0.48 0.91 2.44
1.43 0.91 2.40
2.38 0.91 2.31
3.33 0.91 2.19
4.29 0.91 2.04
5.24 0.91 1.86
6.19 0.91 1.67
7.14 0.91 1.47
8.10 0.91 1.27
9.05 0.91 1.08
10.00 0.91 0.90
-10.00 0.46 0.80
-9.05 0.46 0.95
-8.10 0.46 1.12
-7.14 0.46 1.30
-6.19 0.46 1.48
-5.24 0.46 1.65
-4.29 0.46 1.80
-3.33 0.46 1.94
-2.38 0.46 2.05
-1.43 0.46 2.12
-0.48 0.46 2.16
0.48 0.46 2.16
1.43 0.46 2.12
2.38 0.46 2.05
3.33 0.46 1.94
4.29 0.46 1.80
5.24 0.46 1.65
6.19 0.46 1.48
7.14 0.46 1.30
8.10 0.46 1.12
9.05 0.46 0.95
10.00 0.46 0.80
-10.00 0.00 0.70
-9.05 0.00 0.83
-8.10 0.00 0.98
-7.14 0.00 1.13
-6.19 0.00 1.29
-5.24 0.00 1.44
-4.29 0.00 1.57
-3.33 0.00 1.69
-2.38 0.00 1.79
-1.43 0.00 1.85
-0.48 0.00 1.89
0.48 0.00 1.89
1.43 0.00 1.85
2.38 0.00 1.79
3.33 0.00 1.69
4.29 0.00 1.57
5.24 0.00 1.44
6.19 0.00 1.29
7.14 0.00 1.13
8.10 0.00 0.98
9.05 0.00 0.83
10.00 0.00 0.70